-0.591952362741742788 -0.414809511048453206 -1.54999995231628418 39 36 29
-0.585960021018981925 -0.412668586231413337 -1.54200005531311035 43 40 35
-0.579998110021863633 -0.410527629511696968 -1.53400003910064697 44 41 36
-0.577076205185481528 -0.410527629511696968 -1.53400003910064697 49 44 40
-0.571534267153058773 -0.408654272442772248 -1.52699995040893555 79 71 68
-0.568625695818946508 -0.408654272442772248 -1.52699995040893555 138 128 126
-0.564235238801865324 -0.40758381003425237 -1.52300000190734863 135 124 120
-0.558385709013257681 -0.405442853314535945 -1.51499998569488525 142 129 123
-0.555499994754791282 -0.405442853314535945 -1.51499998569488525 143 130 124
-0.551519987129029721 -0.404639990556807772 -1.51199996471405029 140 129 123
-0.548639987196241075 -0.404639990556807772 -1.51199996471405029 140 131 124
-0.545759987263452429 -0.404639990556807772 -1.51199996471405029 140 131 124
-0.542879987330663782 -0.404639990556807772 -1.51199996471405029 141 132 125
-0.539999987397875136 -0.404639990556807772 -1.51199996471405029 142 133 126
-0.538185709203992557 -0.405442853314535945 -1.51499998569488525 141 132 125
-0.535299994945526159 -0.405442853314535945 -1.51499998569488525 139 132 124
-0.532414280687059649 -0.405442853314535945 -1.51499998569488525 137 130 122
-0.52952856642859325 -0.405442853314535945 -1.51499998569488525 138 131 123
-0.525599987733931795 -0.404639990556807772 -1.51199996471405029 137 130 122
-0.522719987801143149 -0.404639990556807772 -1.51199996471405029 135 128 120
-0.519839987868354392 -0.404639990556807772 -1.51199996471405029 136 129 121
-0.515592386495499433 -0.403569528148287837 -1.50800001621246338 138 131 123
-0.512720005512237509 -0.403569528148287837 -1.50800001621246338 138 131 123
-0.508495220683869875 -0.402499033837091347 -1.50399994850158691 139 132 124
-0.505630458877200151 -0.402499033837091347 -1.50399994850158691 136 129 121
-0.502765697070530537 -0.402499033837091347 -1.50399994850158691 138 131 123
-0.497574278740655795 -0.400625708670843239 -1.49699997901916504 138 131 123
-0.494722850209190712 -0.400625708670843239 -1.49699997901916504 138 131 123
-0.490557152884347092 -0.399555246262323305 -1.49300003051757812 139 132 124
-0.48542664766311644 -0.397681889193398586 -1.4859999418258667 139 135 126
-0.482596171583448141 -0.397681889193398586 -1.4859999418258667 138 134 125
-0.47750570535659792 -0.395808564027150478 -1.47899997234344482 137 133 124
-0.474688562552134208 -0.395808564027150478 -1.47899997234344482 138 134 125
-0.469638096150897799 -0.393935238860902315 -1.47200000286102295 137 133 124
-0.463345703397478381 -0.390991419383457717 -1.46099996566772461 139 135 126
-0.460562846320016039 -0.390991419383457717 -1.46099996566772461 139 135 126
-0.455900013446807861 -0.389385725770677815 -1.45500004291534424 138 134 125
-0.450948557172502817 -0.387512368701753152 -1.44799995422363281 137 133 124
-0.448190462021600622 -0.387512368701753152 -1.44799995422363281 137 133 124
-0.442356179328191823 -0.384836180777776815 -1.43799996376037598 136 132 123
-0.439617131778172077 -0.384836180777776815 -1.43799996376037598 135 131 122
-0.434751426833016541 -0.382962855611528652 -1.4309999942779541 135 131 120
-0.429912388438270232 -0.381089530445280544 -1.42400002479553223 137 133 124
-0.427200007438659657 -0.381089530445280544 -1.42400002479553223 138 131 125
-0.42269904250190371 -0.379483804929824087 -1.4179999828338623 138 131 125
-0.419998090153648751 -0.379483804929824087 -1.4179999828338623 138 133 129
-0.415237146786281042 -0.377610479763575979 -1.41100001335144043 138 133 129
-0.411672378721691323 -0.37680761700584775 -1.40799999237060547 136 131 125
-0.408990473974318758 -0.37680761700584775 -1.40799999237060547 136 132 123
-0.405442848886762353 -0.376004754248119522 -1.40499997138977051 138 129 122
-0.40276665846506754 -0.376004754248119522 -1.40499997138977051 92 82 73
-0.400090468043372727 -0.376004754248119522 -1.40499997138977051 61 47 38
-0.397414277621677969 -0.376004754248119522 -1.40499997138977051 72 58 49
-0.394738087199983156 -0.376004754248119522 -1.40499997138977051 122 108 99
-0.392061896778288344 -0.376004754248119522 -1.40499997138977051 131 121 111
-0.390217140742710633 -0.37680761700584775 -1.40799999237060547 128 121 111
-0.388360956055777418 -0.377610479763575979 -1.41100001335144043 122 118 107
-0.385673336982727044 -0.377610479763575979 -1.41100001335144043 116 113 104
-0.384071418217250271 -0.378680942172095913 -1.41499996185302734 115 112 105
-0.382184757278079101 -0.379483804929824087 -1.4179999828338623 112 109 102
-0.379483804929824087 -0.379483804929824087 -1.4179999828338623 112 108 99
-0.378377149445669969 -0.381089530445280544 -1.42400002479553223 109 105 94
-0.377511427061898386 -0.382962855611528652 -1.4309999942779541 112 109 94
-0.374785712787083225 -0.382962855611528652 -1.4309999942779541 106 104 83
-0.372840003967285172 -0.383765718369256881 -1.43400001525878906 106 102 75
-0.371915234157017272 -0.385639043535505044 -1.44099998474121094 105 101 66
-0.369170472281319773 -0.385639043535505044 -1.44099998474121094 101 96 54
-0.36820570264543806 -0.387512368701753152 -1.44799995422363281 102 96 48
-0.36544760749453592 -0.387512368701753152 -1.44799995422363281 99 92 40
-0.363440946170261903 -0.38831523145948138 -1.45099997520446777 96 87 32
-0.362417129107883984 -0.390188556625729488 -1.45799994468688965 95 84 28
-0.35963998635609945 -0.390188556625729488 -1.45799994468688965 95 85 26
-0.357597134453909726 -0.390991419383457717 -1.46099996566772461 97 85 25
-0.356514298915863059 -0.39286477645238238 -1.46800005435943604 98 84 23
-0.353718108336130765 -0.39286477645238238 -1.46800005435943604 99 83 21
-0.351878095922015965 -0.393935238860902315 -1.47200000286102295 98 82 20
-0.349785719939640583 -0.394738101618630544 -1.47500002384185791 95 79 17
-0.346976196084703703 -0.394738101618630544 -1.47500002384185791 92 76 14
-0.344166672229766823 -0.394738101618630544 -1.47500002384185791 92 76 16
-0.34135714837483 -0.394738101618630544 -1.47500002384185791 94 78 18
-0.339465707937876393 -0.395808564027150478 -1.47899997234344482 95 79 20
-0.33755905673617409 -0.396879058338346913 -1.48300004005432129 94 78 19
-0.334734294755118233 -0.396879058338346913 -1.48300004005432129 91 76 19
-0.332580939361027283 -0.397681889193398586 -1.4859999418258667 94 81 26
-0.329750463281358985 -0.397681889193398586 -1.4859999418258667 109 99 50
-0.326919987201690687 -0.397681889193398586 -1.4859999418258667 118 110 73
-0.324961906841823023 -0.398752383504595076 -1.49000000953674316 114 108 82
-0.322772387549990714 -0.399555246262323305 -1.49300003051757812 112 106 92
-0.319928577968052463 -0.399555246262323305 -1.49300003051757812 110 107 98
-0.317934281258355989 -0.400625708670843239 -1.49699997901916504 110 110 102
-0.315082852726890905 -0.400625708670843239 -1.49699997901916504 111 112 106
-0.313065724032265791 -0.401696202982039674 -1.5010000467300415 111 112 107
-0.310826656023661274 -0.402499033837091347 -1.50399994850158691 113 114 109
-0.307961894216991605 -0.402499033837091347 -1.50399994850158691 114 115 110
-0.306719992841993083 -0.404639990556807772 -1.51199996471405029 112 113 108
-0.304442854268210272 -0.405442853314535945 -1.51499998569488525 109 111 106
-0.301557140009743818 -0.405442853314535945 -1.51499998569488525 109 111 106
-0.299460010528564469 -0.406513347625732435 -1.51900005340576172 108 110 107
-0.298128561746506482 -0.408654272442772248 -1.52699995040893555 108 110 107
-0.295219990412394218 -0.408654272442772248 -1.52699995040893555 108 110 107
-0.292885708808898915 -0.409457135200500477 -1.52999997138977051 108 110 107
-0.289971423149108898 -0.409457135200500477 -1.52999997138977051 108 110 109
-0.288558092912038155 -0.411598091920216902 -1.53799998760223389 108 110 109
-0.287114286422729514 -0.413739048639933271 -1.54600000381469727 107 109 108
-0.284169524510701488 -0.413739048639933271 -1.54600000381469727 108 110 109
-0.282680003643035915 -0.41588000535964964 -1.55400002002716064 109 111 110
-0.280260007381439191 -0.416682868117377869 -1.55700004100799561 109 113 112
-0.277294293017614435 -0.416682868117377869 -1.55700004100799561 108 112 113
-0.276442858151027149 -0.419894287245614173 -1.5690000057220459 108 114 114
-0.274848575251443072 -0.422035243965330598 -1.57700002193450928 106 111 114
-0.271844765685853529 -0.422035243965330598 -1.57700002193450928 103 108 111
-0.270204768407912466 -0.424176200685046967 -1.58500003814697266 83 91 94
-0.268028577055249906 -0.425514294647035163 -1.59000003337860107 99 107 110
-0.265000005563100161 -0.425514294647035163 -1.59000003337860107 105 110 114
-0.263289531980242075 -0.427655251366751532 -1.59800004959106445 104 109 113
-0.260245722361973353 -0.427655251366751532 -1.59800004959106445 104 108 111
-0.257845713978721969 -0.428725713775271466 -1.60199999809265137 102 106 107
-0.255430467696416919 -0.429796176183791401 -1.60599994659423828 102 102 104
-0.252371420179094585 -0.429796176183791401 -1.60599994659423828 97 97 97
-0.249933335554032104 -0.430866670494987836 -1.61000001430511475 89 88 86
-0.2468666688601176 -0.430866670494987836 -1.61000001430511475 114 110 107
-0.243800002166203095 -0.430866670494987836 -1.61000001430511475 112 109 104
-0.241480953806922555 -0.432204764456976032 -1.61500000953674316 98 97 92
-0.238995231900896332 -0.433275226865495966 -1.61899995803833008 106 107 102
-0.235911422457013825 -0.433275226865495966 -1.61899995803833008 102 107 101
-0.23282761301313129 -0.433275226865495966 -1.61899995803833008 102 108 104
-0.229743803569248756 -0.433275226865495966 -1.61899995803833008 85 94 89
-0.226659994125366221 -0.433275226865495966 -1.61899995803833008 82 88 86
-0.223576184681483686 -0.433275226865495966 -1.61899995803833008 86 92 90
-0.220492375237601151 -0.433275226865495966 -1.61899995803833008 81 85 84
-0.217945717743464884 -0.434345721176692401 -1.62300002574920654 73 77 76
-0.214854289122990205 -0.434345721176692401 -1.62300002574920654 73 77 78
-0.211762860502515526 -0.434345721176692401 -1.62300002574920654 81 85 86
-0.209185710975102024 -0.435416183585212335 -1.62699997425079346 75 79 82
-0.206086663405100512 -0.435416183585212335 -1.62699997425079346 55 60 63
-0.204110480830782925 -0.437824771858396966 -1.63600003719329834 74 84 86
-0.20148571252822875 -0.4388952342669169 -1.63999998569488525 63 73 75
-0.198361903031667064 -0.4388952342669169 -1.63999998569488525 91 99 101
-0.195833331062680194 -0.440233328228905096 -1.64499998092651367 94 100 100
-0.193168577126094282 -0.441303822540101531 -1.64900004863739014 92 96 97
-0.190027624652499255 -0.441303822540101531 -1.64900004863739014 91 92 94
-0.18733999967575074 -0.442374284948621466 -1.65299999713897705 92 93 95
-0.18419142825262888 -0.442374284948621466 -1.65299999713897705 90 91 93
-0.181042856829507021 -0.442374284948621466 -1.65299999713897705 96 96 98
-0.178432380131312768 -0.443712378910609662 -1.65799999237060547 98 99 101
-0.175274284907749711 -0.443712378910609662 -1.65799999237060547 87 88 92
-0.172531422433399029 -0.444782841319129596 -1.66199994087219238 70 74 77
-0.169875243731907433 -0.446120967183794292 -1.66700005531311035 82 88 88
-0.166700005531311035 -0.446120967183794292 -1.66700005531311035 103 109 109
-0.163917143231346485 -0.447191429592314227 -1.67100000381469727 104 113 112
-0.161215238003503708 -0.448529523554302423 -1.67599999904632568 101 110 109
-0.158022857052939281 -0.448529523554302423 -1.67599999904632568 99 108 107
-0.155661899475824261 -0.450938079924810498 -1.68499994277954102 99 108 105
-0.153266667184375593 -0.453346668197995128 -1.6940000057220459 103 109 107
-0.150040000506809768 -0.453346668197995128 -1.6940000057220459 102 108 106
-0.147679999669392908 -0.45602285612197152 -1.70399999618530273 104 110 108
-0.144773328644888732 -0.457093318530491399 -1.70799994468688965 104 110 110
-0.141519995416913708 -0.457093318530491399 -1.70799994468688965 103 109 109
-0.139076194876716241 -0.459769538357144292 -1.71800005435943604 102 108 108
-0.135803813820793512 -0.459769538357144292 -1.71800005435943604 101 106 109
-0.133302860600607725 -0.462445726281120684 -1.72800004482269287 105 110 113
-0.130688570567539769 -0.464854282651628758 -1.7369999885559082 104 110 110
-0.127379999160766588 -0.464854282651628758 -1.7369999885559082 106 112 112
-0.124785712787083211 -0.467530470575605095 -1.74699997901916504 104 109 112
-0.121805712495531349 -0.468868564537593291 -1.75199997425079346 106 111 114
-0.118468569687434605 -0.468868564537593291 -1.75199997425079346 97 105 108
-0.115459997994559152 -0.470206658499581487 -1.75699996948242188 90 97 103
-0.112751426015581399 -0.472882846423557823 -1.76699995994567871 83 90 96
-0.109385711806161065 -0.472882846423557823 -1.76699995994567871 82 89 95
-0.106319997310638431 -0.474220940385546019 -1.77199995517730713 81 88 94
-0.102944759300776886 -0.474220940385546019 -1.77199995517730713 80 89 94
-0.0998504734039306618 -0.47555903434753416 -1.77699995040893555 84 92 95
-0.0970628564698355484 -0.478502853824978758 -1.78799998760223389 81 89 92
-0.0936571422077360632 -0.478502853824978758 -1.78799998760223389 82 90 93
-0.0905038086573282941 -0.479840947786966954 -1.7929999828338623 83 91 93
-0.0873314275060381173 -0.48117904174895515 -1.79799997806549072 92 100 102
-0.0839066656430562385 -0.48117904174895515 -1.79799997806549072 95 103 105
-0.080974286397298173 -0.484122861226399748 -1.80900001525878906 94 99 102
-0.0777428575924464654 -0.485460955188387944 -1.81400001049041748 97 103 103
-0.0742876194772266185 -0.485460955188387944 -1.81400001049041748 98 104 104
-0.0712619066238403265 -0.488404774665832542 -1.82500004768371582 99 105 105
-0.067785716056823736 -0.488404774665832542 -1.82500004768371582 99 103 102
-0.0646971416473388627 -0.491348562240600584 -1.83599996566772461 89 93 92
-0.0615666667620341015 -0.494292381718045182 -1.84700000286102295 85 89 88
-0.0580485715184892934 -0.494292381718045182 -1.84700000286102295 92 98 98
-0.054855239277794246 -0.49723620119548978 -1.85800004005432129 88 96 98
-0.0516199988410586397 -0.500179988770257822 -1.86899995803833008 93 101 103
-0.0480599989209856276 -0.500179988770257822 -1.86899995803833008 97 105 107
-0.0449047627903166255 -0.504729533763158877 -1.88600003719329834 95 103 105
-0.84930284466062278 -0.472205707345690062 -1.75199997425079346 125 117 104
-0.845965701852525953 -0.472205707345690062 -1.75199997425079346 118 110 97
-0.840223799433026941 -0.470858089583260697 -1.74699997901916504 115 107 94
-0.834500944614410378 -0.469510471820831277 -1.74199998378753662 114 106 93
-0.831182849407196001 -0.469510471820831277 -1.74199998378753662 112 104 91
-0.825488565989903056 -0.468162854058401912 -1.7369999885559082 111 105 91
-0.822179994583129847 -0.468162854058401912 -1.7369999885559082 114 108 94
-0.814628592559269449 -0.465737154937925779 -1.72800004482269287 117 109 96
-0.808989547093709294 -0.464389537175496414 -1.72300004959106445 118 110 97
-0.805707642237345367 -0.464389537175496414 -1.72300004959106445 118 110 99
-0.80009716817310883 -0.463041919413067049 -1.71800005435943604 117 109 98
-0.794505741709754632 -0.461694301650637684 -1.71300005912780762 124 114 105
-0.791242884454273043 -0.461694301650637684 -1.71300005912780762 133 123 114
-0.783839998245239311 -0.459268570400419684 -1.70399999618530273 137 127 118
-0.780594283966791092 -0.459268570400419684 -1.70399999618530273 136 126 116
-0.775067619482676218 -0.457920952637990319 -1.69900000095367432 140 126 113
-0.769560002599443682 -0.456573334875560954 -1.6940000057220459 139 123 108
-0.766333335921877912 -0.456573334875560954 -1.6940000057220459 137 121 106
-0.761304787681216233 -0.455495253517514187 -1.69000005722045898 134 118 102
-0.755842831475394106 -0.454147603625342955 -1.68499994277954102 134 119 100
-0.752633307774861704 -0.454147603625342955 -1.68499994277954102 105 90 71
-0.747644759359813893 -0.453069522267296187 -1.6809999942779541 51 36 17
-0.744442854608808213 -0.453069522267296187 -1.6809999942779541 55 42 23
-0.739036190055665565 -0.451721904504866822 -1.67599999904632568 50 39 21
-0.733648573103405144 -0.450374286742437457 -1.67100000381469727 54 47 29
-0.730465715953281913 -0.450374286742437457 -1.67100000381469727 45 39 25
-0.723365688551039887 -0.447948555492219458 -1.66199994087219238 41 37 26
-0.718466663360595725 -0.44687047413417269 -1.65799999237060547 41 38 31
-0.715308568137032696 -0.44687047413417269 -1.65799999237060547 38 35 30
-0.708284782795678969 -0.444444775013696558 -1.64900004863739014 41 37 34
-0.705143830322083942 -0.444444775013696558 -1.64900004863739014 38 34 31
-0.700299991880144357 -0.443366661525907979 -1.64499998092651367 40 36 33
-0.693352396715255059 -0.440940962405431847 -1.63600003719329834 41 38 33
-0.690236206168220123 -0.440940962405431847 -1.63600003719329834 40 39 34
-0.685439987182617227 -0.439862848917643212 -1.63199996948242188 40 39 34
-0.678568582194192027 -0.43743714979716708 -1.62300002574920654 43 42 37
-0.675477153573717404 -0.43743714979716708 -1.62300002574920654 48 47 42
-0.670728554044451086 -0.436359036309378501 -1.61899995803833008 51 52 46
-0.667644744600568552 -0.436359036309378501 -1.61899995803833008 53 54 48
-0.662919051533653603 -0.435280954951331733 -1.61500000953674316 51 52 44
-0.656165692465645933 -0.432855223701113734 -1.60599994659423828 46 47 39
-0.6531066449483236 -0.432855223701113734 -1.60599994659423828 38 40 29
-0.648428570656549352 -0.431777142343066966 -1.60199999809265137 35 37 26
-0.643765734263828771 -0.430699060985020254 -1.59800004959106445 41 43 32
-0.640721924645560104 -0.430699060985020254 -1.59800004959106445 41 43 30
-0.636081897531236895 -0.42962094749723162 -1.59399998188018799 48 50 37
-0.633045707089560428 -0.42962094749723162 -1.59399998188018799 32 36 22
-0.626452396029517744 -0.427195248376755488 -1.58500003814697266 35 38 27
-0.620286675294240308 -0.425039053530920141 -1.57700002193450928 33 36 25
-0.617282865728650765 -0.425039053530920141 -1.57700002193450928 32 35 24
-0.611162859371730205 -0.422882858685084739 -1.5690000057220459 32 34 23
-0.60507332926704771 -0.420726663839249393 -1.56099998950958252 33 33 23
-0.602099995953696121 -0.420726663839249393 -1.56099998950958252 36 33 24
-0.594904743603297592 -0.41776189191000801 -1.54999995231628418 39 36 29
-0.591952362741742788 -0.41776189191000801 -1.54999995231628418 39 36 29
-0.585960021018981925 -0.41560572919391453 -1.54200005531311035 41 38 33
-0.579998110021863633 -0.413449534348079129 -1.53400003910064697 40 37 32
-0.577076205185481528 -0.413449534348079129 -1.53400003910064697 40 37 32
-0.572657132148742698 -0.41237142086029055 -1.52999997138977051 83 78 74
-0.569742846488952681 -0.41237142086029055 -1.52999997138977051 134 127 121
-0.564235238801865324 -0.410484762418837801 -1.52300000190734863 133 124 117
-0.559860019683837917 -0.409406681060791033 -1.51900005340576172 138 128 119
-0.556966686248779319 -0.409406681060791033 -1.51900005340576172 139 129 120
-0.552614280496324772 -0.408328567573002399 -1.51499998569488525 138 129 122
-0.549728566237858374 -0.408328567573002399 -1.51499998569488525 138 129 122
-0.546842851979391864 -0.408328567573002399 -1.51499998569488525 139 130 123
-0.543957137720925465 -0.408328567573002399 -1.51499998569488525 139 130 123
-0.541071423462459067 -0.408328567573002399 -1.51499998569488525 139 130 123
-0.538185709203992557 -0.408328567573002399 -1.51499998569488525 140 131 124
-0.535299994945526159 -0.408328567573002399 -1.51499998569488525 139 132 124
-0.532414280687059649 -0.408328567573002399 -1.51499998569488525 139 132 124
-0.52952856642859325 -0.408328567573002399 -1.51499998569488525 138 131 123
-0.526642852170126741 -0.408328567573002399 -1.51499998569488525 139 132 124
-0.523757137911660342 -0.408328567573002399 -1.51499998569488525 136 129 121
-0.520871423653193832 -0.408328567573002399 -1.51499998569488525 138 131 123
-0.516959987935565746 -0.407519990489596418 -1.51199996471405029 139 132 124
-0.5140799880027771 -0.407519990489596418 -1.51199996471405029 139 132 124
-0.509847624528975696 -0.40644190913154965 -1.50800001621246338 140 133 125
-0.506975243545713883 -0.40644190913154965 -1.50800001621246338 136 129 121
-0.50410286256245207 -0.40644190913154965 -1.50800001621246338 139 132 124
-0.498903825055985239 -0.404555250690096901 -1.5010000467300415 139 132 124
-0.496044777347928012 -0.404555250690096901 -1.5010000467300415 139 132 124
-0.491871421677725629 -0.403477137202308267 -1.49699997901916504 141 134 126
-0.486733336448669451 -0.401590478760855518 -1.49000000953674316 140 136 127
-0.483895241192408954 -0.401590478760855518 -1.49000000953674316 138 134 125
-0.478797155788966589 -0.399703820319402769 -1.48300004005432129 137 133 124
-0.475972393807910732 -0.399703820319402769 -1.48300004005432129 140 136 127
-0.470595245701926068 -0.397547625473567423 -1.47500002384185791 138 134 125
-0.465565731525421134 -0.395660967032114674 -1.46800005435943604 139 135 126
-0.462769540945688895 -0.395660967032114674 -1.46800005435943604 139 135 126
-0.456839982668558742 -0.392965699377514077 -1.45799994468688965 139 135 126
-0.451882849420819965 -0.391079040936061328 -1.45099997520446777 139 135 126
-0.449119039944240017 -0.391079040936061328 -1.45099997520446777 138 134 125
-0.443279042925153466 -0.388383805411202543 -1.44099998474121094 137 133 124
-0.440534281049455911 -0.388383805411202543 -1.44099998474121094 136 132 123
-0.435662861778622568 -0.386497146969749794 -1.43400001525878906 136 132 121
-0.429912388438270232 -0.383801911444891064 -1.42400002479553223 137 133 122
-0.427200007438659657 -0.383801911444891064 -1.42400002479553223 139 132 124
-0.42269904250190371 -0.382184757278079101 -1.4179999828338623 139 132 126
-0.419998090153648751 -0.382184757278079101 -1.4179999828338623 138 133 129
-0.415237146786281042 -0.380298098836626353 -1.41100001335144043 138 133 129
-0.411672378721691323 -0.379489521753220316 -1.40799999237060547 135 132 125
-0.408990473974318758 -0.379489521753220316 -1.40799999237060547 134 131 122
-0.405442848886762353 -0.378680944669814334 -1.40499997138977051 135 128 120
-0.40276665846506754 -0.378680944669814334 -1.40499997138977051 91 81 72
-0.400090468043372727 -0.378680944669814334 -1.40499997138977051 61 48 39
-0.397414277621677969 -0.378680944669814334 -1.40499997138977051 71 57 48
-0.394738087199983156 -0.378680944669814334 -1.40499997138977051 123 110 101
-0.392061896778288344 -0.378680944669814334 -1.40499997138977051 127 117 107
-0.390217140742710633 -0.379489521753220316 -1.40799999237060547 127 120 110
-0.388360956055777418 -0.380298098836626353 -1.41100001335144043 118 114 103
-0.385673336982727044 -0.380298098836626353 -1.41100001335144043 113 111 99
-0.384071418217250271 -0.381376180194673065 -1.41499996185302734 115 113 101
-0.382184757278079101 -0.382184757278079101 -1.4179999828338623 106 102 90
-0.379483804929824087 -0.382184757278079101 -1.4179999828338623 107 101 87
-0.378377149445669969 -0.383801911444891064 -1.42400002479553223 100 93 75
-0.377511427061898386 -0.385688569886343813 -1.4309999942779541 102 96 72
-0.374785712787083225 -0.385688569886343813 -1.4309999942779541 101 94 65
-0.373879990577697774 -0.387575228327796562 -1.43799996376037598 101 93 56
-0.371140943027677972 -0.387575228327796562 -1.43799996376037598 100 92 46
-0.369170472281319773 -0.388383805411202543 -1.44099998474121094 98 88 37
-0.36820570264543806 -0.390270463852655347 -1.44799995422363281 99 88 34
-0.36544760749453592 -0.390270463852655347 -1.44799995422363281 101 89 31
-0.364442867892129096 -0.392157154423849907 -1.45500004291534424 98 86 26
-0.362417129107883984 -0.392965699377514077 -1.45799994468688965 97 86 24
-0.35963998635609945 -0.392965699377514077 -1.45799994468688965 95 83 23
-0.357597134453909726 -0.393774276460920059 -1.46099996566772461 98 84 23
-0.356514298915863059 -0.395660967032114674 -1.46800005435943604 98 84 21
-0.353718108336130765 -0.395660967032114674 -1.46800005435943604 96 80 18
-0.351878095922015965 -0.396739048390161442 -1.47200000286102295 92 77 12
-0.349785719939640583 -0.397547625473567423 -1.47500002384185791 91 76 11
-0.346976196084703703 -0.397547625473567423 -1.47500002384185791 92 76 14
-0.345099993546803818 -0.39862570683161419 -1.47899997234344482 94 78 16
-0.342282850742340106 -0.39862570683161419 -1.47899997234344482 95 79 19
-0.340383818717229947 -0.399703820319402769 -1.48300004005432129 95 79 19
-0.338241891520363935 -0.400512365273066939 -1.4859999418258667 94 78 18
-0.335411415440695637 -0.400512365273066939 -1.4859999418258667 91 76 17
-0.333476192610604405 -0.401590478760855518 -1.49000000953674316 96 83 28
-0.330638097354343963 -0.401590478760855518 -1.49000000953674316 113 103 54
-0.327800002098083521 -0.401590478760855518 -1.49000000953674316 122 114 77
-0.325616197131928964 -0.402399055844261555 -1.49300003051757812 118 112 86
-0.322772387549990714 -0.402399055844261555 -1.49300003051757812 118 112 98
-0.319928577968052463 -0.402399055844261555 -1.49300003051757812 115 112 105
-0.317934281258355989 -0.403477137202308267 -1.49699997901916504 112 111 106
-0.315082852726890905 -0.403477137202308267 -1.49699997901916504 112 113 107
-0.313065724032265791 -0.404555250690096901 -1.5010000467300415 111 112 107
-0.310826656023661274 -0.405363795643761071 -1.50399994850158691 111 112 107
-0.307961894216991605 -0.405363795643761071 -1.50399994850158691 112 113 108
-0.306719992841993083 -0.407519990489596418 -1.51199996471405029 111 112 107
-0.304442854268210272 -0.408328567573002399 -1.51499998569488525 108 110 105
-0.301557140009743818 -0.408328567573002399 -1.51499998569488525 109 111 106
-0.299460010528564469 -0.409406681060791033 -1.51900005340576172 108 110 107
-0.298128561746506482 -0.411562843776884513 -1.52699995040893555 107 109 106
-0.295219990412394218 -0.411562843776884513 -1.52699995040893555 107 109 106
-0.292885708808898915 -0.41237142086029055 -1.52999997138977051 108 110 107
-0.289971423149108898 -0.41237142086029055 -1.52999997138977051 108 110 109
-0.288558092912038155 -0.414527615706125896 -1.53799998760223389 108 110 109
-0.287114286422729514 -0.416683810551961242 -1.54600000381469727 107 109 108
-0.284169524510701488 -0.416683810551961242 -1.54600000381469727 107 109 108
-0.282680003643035915 -0.418840005397796644 -1.55400002002716064 108 110 109
-0.280260007381439191 -0.419648582481202626 -1.55700004100799561 110 112 111
-0.277294293017614435 -0.419648582481202626 -1.55700004100799561 108 112 113
-0.276442858151027149 -0.422882858685084739 -1.5690000057220459 108 112 113
-0.274848575251443072 -0.425039053530920141 -1.57700002193450928 106 111 114
-0.271844765685853529 -0.425039053530920141 -1.57700002193450928 102 107 110
-0.270204768407912466 -0.427195248376755488 -1.58500003814697266 89 97 100
-0.268028577055249906 -0.428542866139184853 -1.59000003337860107 103 111 114
-0.265000005563100161 -0.428542866139184853 -1.59000003337860107 106 111 115
-0.263289531980242075 -0.430699060985020254 -1.59800004959106445 104 109 113
-0.260245722361973353 -0.430699060985020254 -1.59800004959106445 104 108 111
-0.257845713978721969 -0.431777142343066966 -1.60199999809265137 104 105 107
-0.255430467696416919 -0.432855223701113734 -1.60599994659423828 102 102 104
-0.252371420179094585 -0.432855223701113734 -1.60599994659423828 98 96 97
-0.249933335554032104 -0.433933337188902368 -1.61000001430511475 87 83 82
-0.2468666688601176 -0.433933337188902368 -1.61000001430511475 116 112 109
-0.243800002166203095 -0.433933337188902368 -1.61000001430511475 118 115 110
-0.241480953806922555 -0.435280954951331733 -1.61500000953674316 109 109 101
-0.238995231900896332 -0.436359036309378501 -1.61899995803833008 104 105 99
-0.235911422457013825 -0.436359036309378501 -1.61899995803833008 106 111 105
-0.23282761301313129 -0.436359036309378501 -1.61899995803833008 107 113 109
-0.229743803569248756 -0.436359036309378501 -1.61899995803833008 81 90 85
-0.226659994125366221 -0.436359036309378501 -1.61899995803833008 80 86 84
-0.223576184681483686 -0.436359036309378501 -1.61899995803833008 73 79 77
-0.220492375237601151 -0.436359036309378501 -1.61899995803833008 79 83 82
-0.217945717743464884 -0.43743714979716708 -1.62300002574920654 68 70 69
-0.214854289122990205 -0.43743714979716708 -1.62300002574920654 72 73 75
-0.211762860502515526 -0.43743714979716708 -1.62300002574920654 80 81 83
-0.209185710975102024 -0.438515231155213847 -1.62699997425079346 75 76 80
-0.206086663405100512 -0.438515231155213847 -1.62699997425079346 57 61 64
-0.204110480830782925 -0.440940962405431847 -1.63600003719329834 81 89 92
-0.20148571252822875 -0.442019043763478614 -1.63999998569488525 84 92 94
-0.198361903031667064 -0.442019043763478614 -1.63999998569488525 96 100 99
-0.195833331062680194 -0.443366661525907979 -1.64499998092651367 101 103 100
-0.193168577126094282 -0.444444775013696558 -1.64900004863739014 95 95 93
-0.190027624652499255 -0.444444775013696558 -1.64900004863739014 88 88 88
-0.18733999967575074 -0.445522856371743325 -1.65299999713897705 90 88 89
-0.18419142825262888 -0.445522856371743325 -1.65299999713897705 90 88 91
-0.181042856829507021 -0.445522856371743325 -1.65299999713897705 93 91 94
-0.178432380131312768 -0.44687047413417269 -1.65799999237060547 88 88 90
-0.175274284907749711 -0.44687047413417269 -1.65799999237060547 79 78 83
-0.172531422433399029 -0.447948555492219458 -1.66199994087219238 75 76 78
-0.169875243731907433 -0.44929620538439069 -1.66700005531311035 97 101 102
-0.166700005531311035 -0.44929620538439069 -1.66700005531311035 106 112 112
-0.163917143231346485 -0.450374286742437457 -1.67100000381469727 102 111 110
-0.161215238003503708 -0.451721904504866822 -1.67599999904632568 102 111 108
-0.158022857052939281 -0.451721904504866822 -1.67599999904632568 102 111 108
-0.155661899475824261 -0.454147603625342955 -1.68499994277954102 98 107 102
-0.153266667184375593 -0.456573334875560954 -1.6940000057220459 103 109 105
-0.150040000506809768 -0.456573334875560954 -1.6940000057220459 102 108 104
-0.147679999669392908 -0.459268570400419684 -1.70399999618530273 104 110 108
-0.145197147868928456 -0.461694301650637684 -1.71300005912780762 102 108 106
-0.141934290613446923 -0.461694301650637684 -1.71300005912780762 102 108 108
-0.139480956395467121 -0.464389537175496414 -1.72300004959106445 103 109 109
-0.136199051539103194 -0.464389537175496414 -1.72300004959106445 102 107 110
-0.133611428056444437 -0.466815236295972547 -1.73199999332427979 103 108 111
-0.130688570567539769 -0.468162854058401912 -1.7369999885559082 102 108 108
-0.127379999160766588 -0.468162854058401912 -1.7369999885559082 103 109 109
-0.125142855303628092 -0.472205707345690062 -1.75199997425079346 102 107 110
-0.122153331211635047 -0.473553325108119427 -1.75699996948242188 105 110 113
-0.118806664603097092 -0.473553325108119427 -1.75699996948242188 96 104 107
-0.115788569109780443 -0.474900942870548792 -1.76199996471405029 88 96 99
-0.112751426015581399 -0.476248560632978157 -1.76699995994567871 83 90 96
-0.109385711806161065 -0.476248560632978157 -1.76699995994567871 82 89 95
-0.106619997024536131 -0.478943796157836887 -1.77699995040893555 83 91 94
-0.103235235214233403 -0.478943796157836887 -1.77699995040893555 81 89 92
-0.100187618618919741 -0.480560950324648906 -1.78299999237060547 83 91 94
-0.0970628564698355484 -0.481908568087078271 -1.78799998760223389 78 86 89
-0.0936571422077360632 -0.481908568087078271 -1.78799998760223389 83 91 94
-0.0905038086573282941 -0.483256185849507636 -1.7929999828338623 83 91 94
-0.0875742844172886503 -0.485951421374366421 -1.80299997329711914 92 100 102
-0.0841399987538655608 -0.485951421374366421 -1.80299997329711914 97 105 107
-0.080974286397298173 -0.487568575541178384 -1.80900001525878906 98 103 106
-0.0777428575924464654 -0.488916193303607749 -1.81400001049041748 99 104 107
-0.0742876194772266185 -0.488916193303607749 -1.81400001049041748 98 103 106
-0.0712619066238403265 -0.491880965232849132 -1.82500004768371582 96 102 102
-0.067785716056823736 -0.491880965232849132 -1.82500004768371582 92 96 97
-0.0646971416473388627 -0.494845705032348648 -1.83599996566772461 84 88 89
-0.0615666667620341015 -0.497810476961589976 -1.84700000286102295 82 86 87
-0.0580485715184892934 -0.497810476961589976 -1.84700000286102295 87 91 92
-0.054855239277794246 -0.500775248890831359 -1.85800004005432129 85 90 93
-0.0517857142857142891 -0.505357142857142838 -1.875 93 101 103
-0.0482142857142857165 -0.505357142857142838 -1.875 97 105 107
-0.0450476180939447315 -0.509939036823454317 -1.89199995994567871 95 103 105
-0.851726651872907414 -0.476899991716657368 -1.75699996948242188 131 121 109
-0.848379985264369418 -0.476899991716657368 -1.75699996948242188 125 118 102
-0.840223799433026941 -0.474185708590916244 -1.74699997901916504 120 113 97
-0.834500944614410378 -0.472828567028045654 -1.74199998378753662 116 109 93
-0.831182849407196001 -0.472828567028045654 -1.74199998378753662 113 106 90
-0.825488565989903056 -0.471471425465175065 -1.7369999885559082 112 106 90
-0.822179994583129847 -0.471471425465175065 -1.7369999885559082 113 107 91
-0.816514282567160521 -0.470114283902304531 -1.73199999332427979 115 109 93
-0.808989547093709294 -0.46767144203186034 -1.72300004959106445 119 113 99
-0.805707642237345367 -0.46767144203186034 -1.72300004959106445 122 116 104
-0.797768598965236109 -0.464957158906119217 -1.71300005912780762 124 118 106
-0.792186641011919268 -0.463599984986441449 -1.70799994468688965 128 119 110
-0.788933307783944215 -0.463599984986441449 -1.70799994468688965 133 124 115
-0.783839998245239311 -0.462514284678867904 -1.70399999618530273 136 127 120
-0.780594283966791092 -0.462514284678867904 -1.70399999618530273 137 127 118
-0.772786669277009564 -0.459800001553126725 -1.6940000057220459 142 130 118
-0.767742883137294219 -0.45871430124555318 -1.69000005722045898 141 127 114
-0.764523835409255281 -0.45871430124555318 -1.69000005722045898 142 126 111
-0.759052355175926619 -0.457357127325875412 -1.68499994277954102 139 123 107
-0.751805713857923275 -0.454914285455431278 -1.67599999904632568 129 112 94
-0.748613332907358764 -0.454914285455431278 -1.67599999904632568 129 112 92
-0.745420951956794364 -0.454914285455431278 -1.67599999904632568 111 94 74
-0.742228571006229965 -0.454914285455431278 -1.67599999904632568 62 47 26
-0.736831430253528374 -0.453557143892560688 -1.67100000381469727 58 45 26
-0.731892405237470345 -0.452471443584987087 -1.66700005531311035 53 45 26
-0.728717167036873947 -0.452471443584987087 -1.66700005531311035 48 41 25
-0.723365688551039887 -0.451114269665309375 -1.66199994087219238 40 36 24
-0.716299998760223433 -0.448671427794865185 -1.65299999713897705 39 36 27
-0.713151427337101573 -0.448671427794865185 -1.65299999713897705 42 39 32
-0.708284782795678969 -0.447585727487291585 -1.64900004863739014 39 38 34
-0.705143830322083942 -0.447585727487291585 -1.64900004863739014 38 37 33
-0.700299991880144357 -0.446499994822910862 -1.64499998092651367 39 38 34
-0.693352396715255059 -0.444057152952466672 -1.63600003719329834 39 38 34
-0.690236206168220123 -0.444057152952466672 -1.63600003719329834 38 37 33
-0.685439987182617227 -0.442971420288085949 -1.63199996948242188 38 37 33
-0.678568582194192027 -0.440528578417641759 -1.62300002574920654 38 39 33
-0.675477153573717404 -0.440528578417641759 -1.62300002574920654 42 43 37
-0.670728554044451086 -0.439442845753261035 -1.61899995803833008 48 49 43
-0.667644744600568552 -0.439442845753261035 -1.61899995803833008 52 53 47
-0.662919051533653603 -0.438357145445687435 -1.61500000953674316 56 59 50
-0.656165692465645933 -0.435914271218436122 -1.60599994659423828 56 59 50
-0.6531066449483236 -0.435914271218436122 -1.60599994659423828 57 60 49
-0.648428570656549352 -0.434828570910862522 -1.60199999809265137 53 56 45
-0.643765734263828771 -0.433742870603288921 -1.59800004959106445 62 66 52
-0.640721924645560104 -0.433742870603288921 -1.59800004959106445 71 75 61
-0.636081897531236895 -0.432657137938908143 -1.59399998188018799 81 85 71
-0.633045707089560428 -0.432657137938908143 -1.59399998188018799 66 70 56
-0.626452396029517744 -0.430214296068464008 -1.58500003814697266 33 39 27
-0.620286675294240308 -0.428042863096509685 -1.57700002193450928 30 36 24
-0.617282865728650765 -0.428042863096509685 -1.57700002193450928 31 35 21
-0.611162859371730205 -0.425871430124555306 -1.5690000057220459 33 35 22
-0.60507332926704771 -0.423699997152600982 -1.56099998950958252 34 34 24
-0.602099995953696121 -0.423699997152600982 -1.56099998950958252 35 35 25
-0.594904743603297592 -0.420714272771562869 -1.54999995231628418 38 38 30
-0.591952362741742788 -0.420714272771562869 -1.54999995231628418 38 38 30
-0.585960021018981925 -0.418542872156415668 -1.54200005531311035 38 37 32
-0.579998110021863633 -0.416371439184461345 -1.53400003910064697 39 38 33
-0.577076205185481528 -0.416371439184461345 -1.53400003910064697 36 35 30
-0.572657132148742698 -0.415285706520080566 -1.52999997138977051 99 96 91
-0.569742846488952681 -0.415285706520080566 -1.52999997138977051 135 128 122
-0.564235238801865324 -0.413385714803423177 -1.52300000190734863 138 129 122
-0.559860019683837917 -0.412300014495849632 -1.51900005340576172 137 127 118
-0.556966686248779319 -0.412300014495849632 -1.51900005340576172 134 124 115
-0.552614280496324772 -0.411214281831468853 -1.51499998569488525 136 127 120
-0.549728566237858374 -0.411214281831468853 -1.51499998569488525 136 129 121
-0.546842851979391864 -0.411214281831468853 -1.51499998569488525 137 130 122
-0.543957137720925465 -0.411214281831468853 -1.51499998569488525 137 130 122
-0.541071423462459067 -0.411214281831468853 -1.51499998569488525 137 130 122
-0.538185709203992557 -0.411214281831468853 -1.51499998569488525 138 131 123
-0.535299994945526159 -0.411214281831468853 -1.51499998569488525 139 132 124
-0.532414280687059649 -0.411214281831468853 -1.51499998569488525 139 132 124
-0.52952856642859325 -0.411214281831468853 -1.51499998569488525 138 131 123
-0.526642852170126741 -0.411214281831468853 -1.51499998569488525 140 133 125
-0.523757137911660342 -0.411214281831468853 -1.51499998569488525 139 132 124
-0.520871423653193832 -0.411214281831468853 -1.51499998569488525 139 132 124
-0.516959987935565746 -0.410399990422385064 -1.51199996471405029 139 132 124
-0.5140799880027771 -0.410399990422385064 -1.51199996471405029 138 131 123
-0.509847624528975696 -0.409314290114811463 -1.50800001621246338 140 133 127
-0.506975243545713883 -0.409314290114811463 -1.50800001621246338 138 131 125
-0.50410286256245207 -0.409314290114811463 -1.50800001621246338 138 134 125
-0.498903825055985239 -0.407414298398154129 -1.5010000467300415 139 135 126
-0.496044777347928012 -0.407414298398154129 -1.5010000467300415 139 135 126
-0.491871421677725629 -0.40632856573377335 -1.49699997901916504 138 134 125
-0.486733336448669451 -0.404428574017116016 -1.49000000953674316 139 135 126
-0.483895241192408954 -0.404428574017116016 -1.49000000953674316 138 134 125
-0.478797155788966589 -0.402528582300458626 -1.48300004005432129 138 134 125
-0.475972393807910732 -0.402528582300458626 -1.48300004005432129 140 136 127
-0.470595245701926068 -0.400357149328504303 -1.47500002384185791 139 135 126
-0.465565731525421134 -0.398457157611846913 -1.46800005435943604 138 134 125
-0.462769540945688895 -0.398457157611846913 -1.46800005435943604 139 135 126
-0.456839982668558742 -0.395742842129298611 -1.45799994468688965 140 136 127
-0.451882849420819965 -0.393842850412641277 -1.45099997520446777 139 135 126
-0.449119039944240017 -0.393842850412641277 -1.45099997520446777 137 133 124
-0.443279042925153466 -0.391128567286900097 -1.44099998474121094 137 133 124
-0.440534281049455911 -0.391128567286900097 -1.44099998474121094 138 134 125
-0.435662861778622568 -0.389228575570242763 -1.43400001525878906 138 131 121
-0.429912388438270232 -0.386514292444501584 -1.42400002479553223 140 133 123
-0.427200007438659657 -0.386514292444501584 -1.42400002479553223 139 132 124
-0.42269904250190371 -0.38488570962633406 -1.4179999828338623 138 131 125
-0.419998090153648751 -0.38488570962633406 -1.4179999828338623 138 133 129
-0.415237146786281042 -0.382985717909676671 -1.41100001335144043 137 132 128
-0.411672378721691323 -0.382171426500592937 -1.40799999237060547 134 131 124
-0.408990473974318758 -0.382171426500592937 -1.40799999237060547 133 130 121
-0.405442848886762353 -0.381357135091509147 -1.40499997138977051 134 127 119
-0.40276665846506754 -0.381357135091509147 -1.40499997138977051 96 87 78
-0.400090468043372727 -0.381357135091509147 -1.40499997138977051 64 51 42
-0.397414277621677969 -0.381357135091509147 -1.40499997138977051 70 56 47
-0.394738087199983156 -0.381357135091509147 -1.40499997138977051 122 109 100
-0.392061896778288344 -0.381357135091509147 -1.40499997138977051 126 116 106
-0.390217140742710633 -0.382171426500592937 -1.40799999237060547 129 122 112
-0.388360956055777418 -0.382985717909676671 -1.41100001335144043 117 113 102
-0.385673336982727044 -0.382985717909676671 -1.41100001335144043 112 110 98
-0.384071418217250271 -0.384071418217250271 -1.41499996185302734 111 109 94
-0.382993334361485083 -0.38570000103541785 -1.42100000381469727 94 91 72
-0.380286667687552316 -0.38570000103541785 -1.42100000381469727 98 92 68
-0.378377149445669969 -0.386514292444501584 -1.42400002479553223 91 84 55
-0.377511427061898386 -0.388414284161158974 -1.4309999942779541 94 84 48
-0.374785712787083225 -0.388414284161158974 -1.4309999942779541 99 87 45
-0.373879990577697774 -0.390314275877816363 -1.43799996376037598 98 86 38
-0.371140943027677972 -0.390314275877816363 -1.43799996376037598 97 84 32
-0.369170472281319773 -0.391128567286900097 -1.44099998474121094 98 83 28
-0.36820570264543806 -0.393028559003557487 -1.44799995422363281 99 84 27
-0.36544760749453592 -0.393028559003557487 -1.44799995422363281 101 85 25
-0.364442867892129096 -0.394928583077022 -1.45500004291534424 100 84 24
-0.362417129107883984 -0.395742842129298611 -1.45799994468688965 97 83 20
-0.35963998635609945 -0.395742842129298611 -1.45799994468688965 97 83 22
-0.358576198646000432 -0.397642866202763123 -1.46500003337860107 97 83 22
-0.356514298915863059 -0.398457157611846913 -1.46800005435943604 95 81 20
-0.353718108336130765 -0.398457157611846913 -1.46800005435943604 94 80 19
-0.351878095922015965 -0.399542857919420513 -1.47200000286102295 93 79 16
-0.350734279155731188 -0.401442849636077903 -1.47899997234344482 94 80 17
-0.347917136351267475 -0.401442849636077903 -1.47899997234344482 96 82 19
-0.34603334267934166 -0.402528582300458626 -1.48300004005432129 95 81 18
-0.343208580698285803 -0.402528582300458626 -1.48300004005432129 92 78 15
-0.341072367600032289 -0.403342841352735237 -1.4859999418258667 92 78 15
-0.338241891520363935 -0.403342841352735237 -1.4859999418258667 96 82 19
-0.335411415440695637 -0.403342841352735237 -1.4859999418258667 92 81 19
-0.333476192610604405 -0.404428574017116016 -1.49000000953674316 96 86 27
-0.330638097354343963 -0.404428574017116016 -1.49000000953674316 110 103 51
-0.327800002098083521 -0.404428574017116016 -1.49000000953674316 120 112 73
-0.325616197131928964 -0.40524286542619975 -1.49300003051757812 117 111 85
-0.323637138321286155 -0.40632856573377335 -1.49699997901916504 117 111 97
-0.320785709789821072 -0.40632856573377335 -1.49699997901916504 112 109 102
-0.318783819448380246 -0.407414298398154129 -1.5010000467300415 113 112 107
-0.315924771740323018 -0.407414298398154129 -1.5010000467300415 112 113 107
-0.313691417830330999 -0.40822855745043074 -1.50399994850158691 110 111 105
-0.311653336683909099 -0.409314290114811463 -1.50800001621246338 109 110 104
-0.308780955700647286 -0.409314290114811463 -1.50800001621246338 110 111 106
-0.306719992841993083 -0.410399990422385064 -1.51199996471405029 110 111 106
-0.304442854268210272 -0.411214281831468853 -1.51499998569488525 109 110 105
-0.301557140009743818 -0.411214281831468853 -1.51499998569488525 111 112 107
-0.30024857180459158 -0.413385714803423177 -1.52300000190734863 109 110 105
-0.298128561746506482 -0.414471415110996777 -1.52699995040893555 107 108 103
-0.295219990412394218 -0.414471415110996777 -1.52699995040893555 106 107 102
-0.292885708808898915 -0.415285706520080566 -1.52999997138977051 108 109 104
-0.289971423149108898 -0.415285706520080566 -1.52999997138977051 109 109 107
-0.288558092912038155 -0.41745713949203489 -1.53799998760223389 109 109 107
-0.287114286422729514 -0.419628572463989269 -1.54600000381469727 108 108 106
-0.284169524510701488 -0.419628572463989269 -1.54600000381469727 108 108 108
-0.282680003643035915 -0.421800005435943592 -1.55400002002716064 110 112 111
-0.28097999811172486 -0.423699997152600982 -1.56099998950958252 109 110 112
-0.278006664798373271 -0.423699997152600982 -1.56099998950958252 105 109 112
-0.276442858151027149 -0.425871430124555306 -1.5690000057220459 102 106 109
-0.274848575251443072 -0.428042863096509685 -1.57700002193450928 98 103 107
-0.271844765685853529 -0.428042863096509685 -1.57700002193450928 93 98 102
-0.270204768407912466 -0.430214296068464008 -1.58500003814697266 87 95 98
-0.268702854088374521 -0.432657137938908143 -1.59399998188018799 98 106 109
-0.265666663646697998 -0.432657137938908143 -1.59399998188018799 106 111 115
-0.263289531980242075 -0.433742870603288921 -1.59800004959106445 104 109 113
-0.260245722361973353 -0.433742870603288921 -1.59800004959106445 104 108 111
-0.257845713978721969 -0.434828570910862522 -1.60199999809265137 103 104 106
-0.255430467696416919 -0.435914271218436122 -1.60599994659423828 101 101 103
-0.252371420179094585 -0.435914271218436122 -1.60599994659423828 96 94 95
-0.249933335554032104 -0.437000003882816845 -1.61000001430511475 81 77 76
-0.247633334795633958 -0.438357145445687435 -1.61500000953674316 112 108 105
-0.244557144301278256 -0.438357145445687435 -1.61500000953674316 113 112 107
-0.241480953806922555 -0.438357145445687435 -1.61500000953674316 111 112 104
-0.238995231900896332 -0.439442845753261035 -1.61899995803833008 108 111 104
-0.235911422457013825 -0.439442845753261035 -1.61899995803833008 106 111 105
-0.23282761301313129 -0.439442845753261035 -1.61899995803833008 111 117 113
-0.229743803569248756 -0.439442845753261035 -1.61899995803833008 86 95 90
-0.226659994125366221 -0.439442845753261035 -1.61899995803833008 71 77 75
-0.223576184681483686 -0.439442845753261035 -1.61899995803833008 73 77 76
-0.220492375237601151 -0.439442845753261035 -1.61899995803833008 70 72 71
-0.217945717743464884 -0.440528578417641759 -1.62300002574920654 64 64 64
-0.214854289122990205 -0.440528578417641759 -1.62300002574920654 73 73 73
-0.211762860502515526 -0.440528578417641759 -1.62300002574920654 82 82 82
-0.209185710975102024 -0.441614278725215359 -1.62699997425079346 84 84 86
-0.206086663405100512 -0.441614278725215359 -1.62699997425079346 82 83 85
-0.204110480830782925 -0.444057152952466672 -1.63600003719329834 99 104 107
-0.20148571252822875 -0.445142853260040272 -1.63999998569488525 100 106 106
-0.198361903031667064 -0.445142853260040272 -1.63999998569488525 89 91 86
-0.195833331062680194 -0.446499994822910862 -1.64499998092651367 81 82 76
-0.193168577126094282 -0.447585727487291585 -1.64900004863739014 80 79 75
-0.190027624652499255 -0.447585727487291585 -1.64900004863739014 87 86 84
-0.18733999967575074 -0.448671427794865185 -1.65299999713897705 90 86 85
-0.18419142825262888 -0.448671427794865185 -1.65299999713897705 86 82 83
-0.181042856829507021 -0.448671427794865185 -1.65299999713897705 78 73 77
-0.178432380131312768 -0.450028569357735775 -1.65799999237060547 80 78 81
-0.175274284907749711 -0.450028569357735775 -1.65799999237060547 85 85 87
-0.172531422433399029 -0.451114269665309375 -1.66199994087219238 94 95 97
-0.169875243731907433 -0.452471443584987087 -1.66700005531311035 104 108 109
-0.166700005531311035 -0.452471443584987087 -1.66700005531311035 102 108 106
-0.163524767330714638 -0.452471443584987087 -1.66700005531311035 98 107 104
